1.170850 0.125742 -4.144690 
0.701952 0.162615 -4.242720 
0.173555 0.171652 -4.300470 
-0.242126 0.263634 -4.289380 
-0.676942 0.203856 -4.250100 
-1.132820 0.281873 -4.138860 
-1.495710 0.296291 -4.026450 
-2.026930 0.175595 -3.793090 
-2.389530 0.287759 -3.572360 
-2.724710 0.237685 -3.329240 
-3.053300 0.195366 -3.033180 
-3.378830 0.213544 -2.668890 
-3.640480 0.259724 -2.286410 
-3.862340 0.237692 -1.892350 
-4.037230 0.252777 -1.479940 
-4.179190 0.231905 -1.012200 
-4.266280 0.243955 -0.558244 
-4.294640 0.279378 -0.129624 
-4.293610 0.197911 0.337619 
-4.222290 0.241976 0.832861 
-4.115290 0.218327 1.252120 
-3.934510 0.164000 1.750950 
-3.683760 0.219166 2.219480 
-3.278260 0.187391 2.790510 
-2.926420 0.195994 3.155640 
-2.532280 0.196884 3.477810 
-1.986630 0.256951 3.808560 
-1.626490 0.246093 3.981830 
-1.129770 0.181949 4.151490 
-0.680431 0.201871 4.246510 
-0.270667 0.294344 4.289890 
0.106517 0.294245 4.291800 
0.498397 0.200261 4.273220 
0.915205 0.168921 4.201580 
1.566180 0.106109 4.008580 
2.199040 0.145362 3.696190 
2.560550 0.191530 3.459590 
2.908920 0.161239 3.173540 
3.230370 0.148489 2.844870 
3.522860 0.119028 2.483430 
3.836810 0.143867 1.947630 
4.104829 0.072087 1.312870 
4.225049 0.145290 0.812548 
4.274290 0.289179 0.438356 
4.303150 0.121989 0.065937 
4.280439 0.333096 -0.295067 
4.257199 0.137774 -0.629391 
4.161119 0.062614 -1.135230 
3.916130 0.148860 -1.781210 
3.728550 0.209637 -2.147220 
3.485860 0.110488 -2.530080 
3.177090 0.120419 -2.908070 
2.859890 0.215006 -3.213180 
2.534160 0.156183 -3.480320 
2.133030 0.208147 -3.737160 
1.738820 0.149037 -3.932980 
1.447030 0.408284 -4.030480 
0.859918 0.491703 -4.187650 
0.424898 0.469528 -4.258710 
-0.017492 0.619437 -4.261900 
-0.452272 0.597157 -4.238540 
-0.894331 0.561953 -4.171420 
-1.783910 0.479525 -3.885260 
-2.145560 0.600345 -3.681670 
-2.444970 0.705688 -3.470580 
-2.734400 0.633372 -3.261260 
-3.008380 0.601981 -3.018590 
-3.252200 0.590411 -2.756100 
-3.525350 0.618275 -2.390140 
-3.742190 0.622289 -2.033600 
-3.924010 0.612747 -1.662000 
-4.087389 0.588228 -1.212880 
-4.188829 0.593750 -0.785880 
-4.226379 0.688386 -0.430804 
-4.248799 0.656297 -0.058021 
-4.242899 0.649463 0.300802 
-4.209400 0.601575 0.653654 
-4.125179 0.738353 0.981945 
-4.059929 0.586020 1.293070 
-3.931190 0.569136 1.658050 
-3.766810 0.536743 2.012300 
-3.488390 0.420285 2.491710 
-3.218110 0.580678 2.798740 
-2.960510 0.579499 3.069830 
-2.654020 0.545583 3.345370 
-2.289440 0.442472 3.619150 
-1.878830 0.661991 3.813580 
-1.367140 0.512752 4.043610 
-0.999628 0.610373 4.141120 
-0.628251 0.561386 4.219700 
1.253430 0.359606 4.101410 
1.898620 0.349478 3.848100 
2.284390 0.533879 3.610250 
2.673040 0.551447 3.328490 
3.012690 0.539740 3.027050 
3.306310 0.514425 2.710040 
3.677360 0.388057 2.201800 
3.962350 0.348846 1.648820 
4.072579 0.489099 1.298950 
4.176099 0.486996 0.928382 
4.266860 0.548853 0.053017 
4.201280 0.430016 -0.834505 
4.033949 0.334563 -1.466830 
3.843100 0.537312 -1.865030 
3.570630 0.480798 -2.354410 
3.308060 0.465304 -2.715620 
3.006140 0.533331 -3.033470 
2.670000 0.595527 -3.324790 
2.365740 0.519096 -3.555290 
1.834420 0.540418 -3.856110 
1.169440 0.683102 -4.081320 
0.742770 0.870386 -4.149890 
0.346737 0.829024 -4.206450 
-1.218900 0.759444 -4.057580 
-1.534180 0.792854 -3.939800 
-1.902790 0.902067 -3.749870 
-2.221790 1.054310 -3.531090 
-2.524230 1.113650 -3.303110 
-2.842160 0.996473 -3.073530 
-3.073050 1.078800 -2.813610 
-3.344180 0.920231 -2.546440 
-3.573050 1.019190 -2.174960 
-3.768880 0.991439 -1.828400 
-3.972560 0.910999 -1.381630 
-4.087930 0.952335 -0.947958 
-4.122149 1.086620 -0.596797 
-4.168640 1.053930 -0.156539 
-4.161150 1.069080 0.246029 
-4.118460 1.070280 0.643382 
-4.028460 1.145260 0.995811 
-3.938950 0.946862 1.460920 
-3.738360 0.957755 1.910230 
-3.587140 0.772210 2.249030 
-3.358130 0.859181 2.549220 
-3.081200 1.024890 2.826440 
-2.817910 0.946294 3.112470 
-2.497270 0.904711 3.387440 
-2.199280 0.817539 3.606700 
-1.540930 0.811229 3.933730 
-1.139200 0.993891 4.031860 
-0.733072 0.983844 4.126750 
-0.332525 0.787892 4.216590 
0.036841 0.683087 4.250580 
0.452357 0.592453 4.239760 
0.870842 0.570778 4.176710 
1.606680 0.602100 3.943180 
1.955190 0.783892 3.750490 
2.396540 0.892997 3.461040 
2.749040 0.936636 3.177960 
3.086180 0.907258 2.860990 
3.513480 0.637920 2.399670 
3.790430 0.639755 1.940630 
3.928880 0.785166 1.572120 
4.042089 0.882479 1.182680 
4.135419 0.857051 0.818695 
4.224360 0.657413 0.492672 
4.204199 0.898226 0.116497 
4.231810 0.679743 -0.388148 
4.097789 0.554986 -1.184420 
3.937560 0.755980 -1.563320 
3.674800 0.772256 -2.099660 
3.410510 0.816705 -2.495900 
3.114900 0.869850 -2.840350 
2.789860 0.916434 -3.146000 
2.117200 0.744574 -3.669610 
1.521040 0.833818 -3.939010 
1.149360 1.082430 -4.005680 
-0.243012 0.957692 -4.189440 
-0.680606 0.874751 -4.157020 
-0.976510 1.095700 -4.044340 
-1.630830 1.168150 -3.808340 
-3.272300 1.298760 -2.473290 
-3.830930 1.231420 -1.519510 
-3.960820 1.288120 -1.095000 
-4.051320 1.400250 -0.312851 
-4.036039 1.487110 0.066992 
-4.025370 1.434390 0.479071 
-3.883060 1.295440 1.320330 
-3.733890 1.279510 1.711770 
-3.467420 1.188300 2.254670 
-3.217420 1.304670 2.544190 
-2.910170 1.426210 2.834620 
-2.659560 1.304170 3.120490 
-2.359180 1.300990 3.357040 
-2.051540 1.194830 3.587850 
-1.742430 1.099480 3.778150 
-1.390310 1.278350 3.865710 
-0.690434 1.325710 4.033930 
-0.220914 1.147400 4.143350 
0.196127 1.038990 4.172640 
0.589684 0.950894 4.157130 
0.956943 0.973635 4.079990 
1.287660 0.777175 4.031420 
1.626970 1.053550 3.847060 
2.074920 1.146060 3.592030 
3.331760 0.984548 2.539500 
3.588100 0.969027 2.174690 
3.759610 1.043390 1.813230 
3.908430 1.191250 1.350600 
4.029089 1.227680 0.888583 
4.138869 1.070430 0.483057 
4.150700 1.006870 -0.492878 
4.137839 0.821901 -0.859427 
4.001200 0.974399 -1.253680 
3.786630 1.049060 -1.760480 
3.270010 1.155360 -2.546950 
2.402300 0.988738 -3.437940 
1.840300 1.008740 -3.752290 
1.546500 1.246500 -3.819750 
0.705106 1.224270 -4.064980 
0.134930 1.102270 -4.158640 
-0.551485 1.229140 -4.087920 
-1.261920 1.271080 -3.913670 
-1.955240 1.330340 -3.596080 
-2.265170 1.485170 -3.346440 
-2.672210 1.381900 -3.078160 
-2.985830 1.483020 -2.726080 
-3.457050 1.403760 -2.143090 
-3.625840 1.446580 -1.815360 
-3.742230 1.591370 -1.414790 
-3.978940 1.486850 -0.685004 
-3.910940 1.770350 -0.304859 
-3.888470 1.832730 0.234790 
-3.892460 1.695860 0.687643 
-3.860210 1.577620 1.072550 
-3.683410 1.633890 1.520510 
-3.523620 1.444490 2.005040 
-3.268400 1.668580 2.253690 
-3.022960 1.682090 2.556990 
-2.580350 1.669620 3.011910 
-2.099640 1.599500 3.400230 
-1.723120 1.505730 3.645960 
-1.035460 1.440870 3.922310 
-0.329948 1.482800 4.025910 
0.086086 1.505530 4.033570 
0.426189 1.375030 4.052420 
0.809094 1.365580 4.000860 
1.245680 1.212010 3.937740 
2.433450 1.266770 3.316770 
2.841800 1.253430 2.979760 
3.094760 1.328200 2.681100 
3.361990 1.333140 2.333050 
3.563310 1.376290 1.981750 
3.732080 1.435990 1.595480 
3.854270 1.535720 1.146070 
3.959460 1.529830 0.694474 
4.058320 1.381490 0.336635 
4.144489 1.150840 -0.107841 
4.046929 1.229690 -0.797483 
3.935390 1.320830 -1.126600 
3.794970 1.364330 -1.504770 
3.557640 1.122500 -2.146240 
2.951040 1.244480 -2.879090 
2.620950 1.265330 -3.171160 
2.047400 1.262060 -3.569220 
1.179540 1.433770 -3.882470 
0.327853 1.389070 -4.059440 
-0.154688 1.352830 -4.081020 
-0.853847 1.499950 -3.942280 
-1.495230 1.540160 -3.730100 
-1.839020 1.685500 -3.507690 
-2.700840 1.684860 -2.891860 
-3.183550 1.672760 -2.364620 
-3.381500 1.788770 -1.974350 
-3.523680 1.875790 -1.610050 
-3.654150 1.938020 -1.182070 
-3.834510 1.680440 -0.982615 
-3.772690 1.959530 -0.673465 
-3.759180 2.082550 -0.159277 
-3.705520 1.959990 0.959662 
-3.594510 1.948860 1.341000 
-3.442030 1.792460 1.858150 
-3.182420 2.055000 2.044870 
-2.939440 2.036190 2.391900 
-2.704490 1.911200 2.746260 
-2.281330 1.842320 3.145200 
-1.761460 1.854100 3.462510 
-1.348810 1.667190 3.732580 
-0.985261 1.886320 3.742470 
-0.657930 1.727680 3.886040 
-0.155799 1.826840 3.893770 
0.519343 1.761830 3.897070 
1.019960 1.646950 3.843460 
1.433480 1.503170 3.768440 
1.798450 1.408500 3.647230 
2.134000 1.555550 3.401460 
2.581160 1.529350 3.084610 
2.810540 1.674760 2.796170 
3.096440 1.669620 2.479570 
3.334020 1.702510 2.124460 
3.513810 1.775350 1.739900 
3.660640 1.806270 1.366350 
4.023069 1.519770 -0.020724 
4.040460 1.411410 -0.425669 
3.897940 1.640690 -0.787366 
3.775060 1.664430 -1.229310 
3.609670 1.445090 -1.845480 
3.394790 1.444650 -2.214840 
3.126670 1.512250 -2.540910 
2.291290 1.443890 -3.342420 
1.885940 1.640720 -3.505860 
1.528210 1.610130 -3.687440 
0.815455 1.575940 -3.921420 
0.435103 1.720200 -3.920970 
-0.006675 1.684780 -3.963620 
-0.472275 1.614390 -3.961260 
-1.061670 1.744070 -3.789760 
-1.404670 1.882220 -3.605760 
-2.024130 1.942250 -3.264070 
-2.357960 1.784260 -3.124110 
-2.895160 1.900740 -2.554640 
-3.114720 2.029400 -2.164640 
-3.275250 2.188830 -1.736560 
-3.449810 2.223160 -1.291280 
-3.553290 2.268680 -0.874820 
-3.611320 2.297990 -0.441271 
-3.681700 2.214090 0.198411 
-3.712340 2.099350 0.588385 
-3.370490 2.111480 1.644780 
-2.903880 2.354910 2.126350 
-2.374290 2.165380 2.863640 
-1.363590 2.019820 3.548130 
-0.485792 2.059490 3.749290 
0.163619 1.989630 3.812350 
0.869118 1.972150 3.726130 
1.335150 1.876710 3.637100 
1.728210 1.805080 3.506760 
2.018010 1.958290 3.255820 
2.362080 1.826580 3.094700 
2.764160 2.004150 2.617670 
3.071010 1.994810 2.259410 
3.265780 2.079580 1.881010 
3.781740 1.845340 0.890581 
3.895330 1.787640 0.396102 
3.874580 1.863490 -0.028713 
3.891240 1.783500 -0.430429 
3.507340 1.784630 -1.741960 
3.277880 1.776710 -2.151660 
2.816950 1.624700 -2.819180 
2.522750 1.658770 -3.063850 
2.193950 1.834810 -3.216490 
1.110430 1.844690 -3.727270 
0.748498 1.987120 -3.744800 
0.313197 2.043130 -3.775010 
-0.092195 2.018920 -3.798230 
-0.479782 1.948080 -3.807390 
-0.816004 2.045940 -3.697640 
-1.193630 2.179860 -3.513100 
-1.649360 2.109310 -3.372040 
-2.212610 2.173950 -2.982530 
-2.552470 2.029710 -2.804840 
-2.777740 2.261620 -2.385350 
-2.980760 2.350150 -2.022730 
-3.224220 2.490020 -1.383760 
-3.275520 2.620500 -0.979675 
-3.377710 2.598210 -0.593195 
-3.497420 2.513310 -0.089742 
-3.479300 2.507290 0.358633 
-3.451830 2.457520 0.757170 
-3.481720 2.284940 1.087730 
-3.277750 2.417030 1.388750 
-3.079900 2.423750 1.773210 
-2.616560 2.276170 2.545500 
-2.001190 2.107880 3.173470 
-1.648050 2.235390 3.288300 
-0.992433 2.245400 3.535590 
-0.637387 2.354060 3.545010 
-0.174842 2.292730 3.640570 
0.477856 2.194530 3.672480 
1.247250 2.208530 3.476660 
1.641100 2.207870 3.313960 
2.414700 2.124420 2.861140 
2.816520 2.304060 2.292590 
3.431730 2.145190 1.463970 
3.574840 2.137620 1.081470 
3.701000 2.107760 0.608101 
3.726720 2.143460 0.166234 
3.734550 2.107500 -0.359928 
3.723930 1.945930 -0.918622 
3.586050 1.936840 -1.385650 
2.972010 1.865520 -2.490740 
2.529220 2.004120 -2.849160 
1.787880 2.029220 -3.350650 
1.432700 1.987920 -3.537010 
1.054170 2.256820 -3.513670 
0.566681 2.305640 -3.589860 
0.131259 2.364450 -3.594530 
-0.322744 2.319540 -3.614190 
-0.726712 2.382670 -3.510720 
-1.124190 2.482100 -3.329960 
-1.522390 2.452650 -3.193440 
-1.884030 2.375970 -3.053320 
-2.144570 2.549150 -2.719710 
-2.457100 2.356470 -2.627690 
-2.533750 2.610190 -2.294820 
-2.740720 2.662830 -1.973810 
-3.005920 2.586200 -1.672300 
-3.009980 2.825350 -1.218520 
-3.113890 2.908130 -0.611152 
-3.240590 2.822960 -0.231828 
-3.254230 2.809750 0.183795 
-3.220490 2.795160 0.589807 
-3.195250 2.683610 1.068520 
-2.971320 2.736300 1.488980 
-2.743600 2.749520 1.860190 
-2.604470 2.574960 2.252510 
-2.274070 2.562630 2.604900 
-2.033230 2.417320 2.920170 
-1.667180 2.580330 3.016890 
-1.273730 2.431590 3.315010 
-0.864748 2.666640 3.270890 
-0.427859 2.634970 3.378490 
0.151708 2.446960 3.537990 
0.861787 2.323410 3.519090 
1.977700 2.315430 3.041780 
2.531660 2.381450 2.532270 
2.987100 2.394110 1.961910 
3.177950 2.424930 1.591860 
3.291850 2.513540 1.176950 
3.449740 2.433310 0.840955 
3.535550 2.416080 0.425269 
3.562250 2.414470 -0.052129 
3.517020 2.437700 -0.437449 
3.593280 2.247270 -0.747953 
3.489590 2.246150 -1.140070 
3.282660 2.373660 -1.447830 
3.309460 2.129150 -1.742040 
3.114850 2.095870 -2.097260 
2.752560 2.151930 -2.507400 
2.059650 2.183450 -3.079440 
1.436340 2.328980 -3.322520 
0.799792 2.531240 -3.384970 
0.415207 2.665300 -3.358060 
-0.014227 2.644610 -3.394160 
-0.407835 2.650190 -3.367540 
-0.783007 2.711920 -3.249630 
-1.166450 2.780730 -3.070220 
-1.503960 2.783600 -2.918610 
-1.842040 2.741560 -2.755750 
-2.209360 2.809170 -2.396730 
-2.767990 2.905740 -1.559460 
-2.901420 3.055200 -0.875437 
-3.000520 3.085530 0.003563 
-2.986740 2.986940 0.820240 
-2.850220 2.996530 1.199400 
-2.608090 3.051710 1.549960 
-2.338440 2.840630 2.229090 
-1.874740 2.775270 2.702210 
-1.285290 2.744570 3.052990 
-0.069348 2.736260 3.321590 
0.525342 2.569810 3.413650 
0.913695 2.655950 3.261540 
1.325120 2.540900 3.210710 
1.656450 2.613270 2.994810 
2.167670 2.505630 2.743200 
2.353970 2.705190 2.375600 
2.648630 2.679770 2.079680 
2.859890 2.715530 1.719660 
3.014630 2.757970 1.349500 
3.277120 2.725150 0.601537 
3.347620 2.697210 0.198726 
3.314010 2.740710 -0.227100 
3.326490 2.638800 -0.710378 
3.246540 2.614010 -1.079490 
3.028840 2.478810 -1.788150 
2.871550 2.365280 -2.159480 
2.510500 2.427390 -2.509030 
2.288330 2.327440 -2.802520 
1.734250 2.464650 -3.073700 
1.289370 2.645770 -3.139150 
0.924261 2.782730 -3.147350 
0.233199 2.942160 -3.130830 
-0.510220 2.985710 -3.057260 
-0.880414 3.021940 -2.933870 
-1.568580 3.056650 -2.590200 
-2.202950 3.057030 -2.074610 
-2.506650 2.957550 -1.869190 
-2.654330 3.167760 -1.200460 
-2.869710 3.187490 -0.388435 
-2.922030 3.136910 0.420801 
-2.386860 3.047140 1.880910 
-2.001440 2.972370 2.377520 
-1.475260 2.967590 2.750260 
-1.012810 2.975050 2.942180 
-0.543459 2.967200 3.073950 
0.333244 2.848560 3.209600 
1.871220 2.788220 2.690430 
2.345910 2.996120 2.009330 
3.094900 2.849390 0.914639 
3.098750 2.983280 0.116989 
3.026270 2.946800 -0.833432 
3.026050 2.706200 -1.431210 
2.650040 2.649480 -2.111240 
1.989080 2.620190 -2.776530 
1.549700 2.807100 -2.874670 
-0.146237 2.942440 -3.137520 
-1.887690 3.036900 -2.390080 
0.852803 4.212010 0.241855 
-2.423160 3.216980 -1.519380 
-2.612580 3.339660 -0.742176 
-2.696390 3.355060 0.059127 
-2.667610 3.270230 0.841035 
-2.488180 3.293420 1.223830 
-1.993410 3.229500 2.035500 
-1.636020 3.166820 2.408210 
-0.127011 3.040350 3.046070 
0.783498 2.960890 3.027190 
1.223120 2.894410 2.945520 
1.519200 3.007800 2.680450 
2.046770 2.965110 2.350880 
2.611410 2.997420 1.653950 
2.803080 3.039320 1.197710 
2.994950 3.049630 0.519144 
3.091730 2.953790 -0.467150 
2.907630 2.948430 -1.164110 
2.756800 2.823240 -1.722930 
2.325690 2.717990 -2.389390 
2.010520 2.889960 -2.467570 
1.696880 3.012820 -2.558720 
1.087070 3.011100 -2.881280 
0.615849 2.992240 -3.033310 
-1.189920 3.119800 -2.717430 
-1.374480 3.325250 -2.362470 
-1.818540 3.293250 -2.092830 
-2.109890 3.308670 -1.769130 
-2.343940 3.444690 -1.088370 
-2.542700 3.459770 -0.317050 
-2.571970 3.422040 0.463852 
-2.189410 3.337460 1.620630 
-1.787850 3.483220 1.783820 
-1.493330 3.418980 2.146220 
-1.217980 3.263150 2.536680 
-0.801995 3.217760 2.737610 
-0.418208 3.307850 2.730030 
0.018606 3.305720 2.753690 
0.373901 3.122620 2.940020 
0.777564 3.247680 2.714780 
1.124250 3.233440 2.610570 
1.706650 3.189990 2.327350 
1.971830 3.257080 2.006800 
2.264170 3.250450 1.686040 
2.495740 3.251090 1.306530 
2.758960 3.200620 0.823289 
2.899990 3.176530 -0.171622 
2.773030 3.241640 -0.587325 
2.647310 3.106890 -1.365530 
2.409660 2.937440 -2.016530 
2.079330 3.108010 -2.131910 
1.337730 3.136420 -2.623480 
0.991299 3.316590 -2.556350 
0.666268 3.260480 -2.729000 
0.249181 3.229760 -2.834930 
-0.202908 3.216990 -2.853860 
-0.634556 3.266950 -2.730690 
-0.945669 3.387100 -2.483720 
-1.482240 3.492270 -2.027370 
-1.746960 3.556310 -1.684730 
-2.056410 3.507670 -1.406690 
-2.284130 3.585010 -0.681302 
-2.346150 3.607570 0.128691 
-2.301070 3.541620 0.848725 
-2.132120 3.514630 1.266140 
-1.721060 3.684250 1.424330 
-1.388590 3.668990 1.775330 
-1.119420 3.568920 2.130400 
-0.837781 3.465260 2.413870 
0.418189 3.399800 2.606600 
1.351390 3.366280 2.314220 
1.531300 3.506680 1.978080 
1.872150 3.488050 1.690140 
2.138400 3.488260 1.337880 
2.395840 3.452750 0.938997 
2.550530 3.424180 0.538723 
2.761230 3.296410 0.222087 
2.592580 3.432200 -0.172191 
2.624160 3.278940 -0.946954 
2.431980 3.124630 -1.682060 
2.124060 3.364580 -1.646420 
1.872380 3.344900 -1.952190 
1.617010 3.281690 -2.266830 
1.234370 3.455630 -2.252730 
0.830250 3.560380 -2.274000 
0.453855 3.489450 -2.481580 
0.024387 3.452080 -2.568600 
-0.376644 3.469670 -2.520600 
-0.664132 3.608980 -2.248730 
-1.076820 3.591540 -2.111940 
-1.313410 3.714680 -1.734460 
-1.558480 3.767830 -1.387570 
-1.937380 3.690910 -1.077350 
-1.925850 3.790680 -0.674399 
-2.207060 3.687810 -0.247728 
-2.159520 3.688430 0.499277 
-1.895310 3.731240 1.008060 
-1.301570 3.868680 1.368890 
-0.490206 3.620540 2.271200 
0.222929 3.623630 2.312460 
1.035400 3.572400 2.160730 
1.486200 3.700120 1.617050 
1.778920 3.702950 1.287330 
2.020010 3.684720 0.935075 
2.193870 3.661520 0.559881 
2.401330 3.569620 0.164261 
2.431130 3.512090 -0.523428 
2.350580 3.379140 -1.257370 
1.514350 3.543780 -1.917310 
0.458339 3.706050 -2.135220 
-0.304322 3.726530 -2.127110 
-1.058810 3.891290 -1.501980 
-1.557740 3.886290 -0.989738 
-1.839770 3.879150 -0.293038 
-1.793740 3.864100 0.630577 
-1.013830 3.825130 1.689590 
-0.736300 3.758330 1.961350 
-0.151825 3.547380 2.433130 
0.683099 3.566630 2.313500 
1.101170 3.745280 1.814240 
1.547630 3.886190 1.011410 
1.995320 3.806210 0.228867 
2.181500 3.708810 -0.149936 
2.261260 3.557120 -0.878961 
2.007080 3.603260 -1.225970 
1.764600 3.597680 -1.575790 
1.135110 3.687210 -1.901040 
0.063223 3.677090 -2.235190 
-0.447105 3.887090 -1.788540 
-0.842740 3.789990 -1.854080 
-1.189090 3.970860 -1.159780 
-1.510250 3.985960 -0.615899 
-1.928570 3.850230 0.143790 
-1.496250 3.900530 1.033020 
-0.841506 3.997560 1.352850 
-0.496759 3.949770 1.637990 
-0.235244 3.820660 1.970850 
0.194437 3.809050 1.986190 
0.634412 3.794830 1.934300 
0.453743 3.987070 1.549570 
1.261590 3.897150 1.330620 
1.773080 3.867860 0.658007 
2.057410 3.744700 -0.518779 
1.859700 3.781670 -0.881754 
1.599790 3.801500 -1.226950 
1.339840 3.783140 -1.558450 
0.786911 3.777120 -1.899810 
0.411121 3.901070 -1.762990 
0.013288 3.897900 -1.825800 
-0.661801 4.003510 -1.431540 
-1.040880 4.090510 -0.837465 
-1.182220 4.117740 -0.425067 
-1.503960 4.030400 -0.140007 
-1.550010 4.004850 0.300061 
-1.362950 4.025910 0.673476 
-1.032620 4.063440 0.989511 
0.043401 3.978050 1.636180 
0.862448 3.927610 1.532750 
1.020040 4.050690 1.033000 
1.314070 4.035500 0.729560 
1.611410 3.979530 0.310892 
1.771310 3.923180 -0.123655 
1.675960 3.928180 -0.526307 
1.420720 3.957550 -0.925263 
1.128600 3.953680 -1.274530 
0.804776 3.942500 -1.528470 
0.323520 4.045970 -1.428010 
-0.221674 4.034900 -1.473770 
-0.677430 4.113880 -1.067880 
-1.168350 4.144000 0.109296 
-1.018700 4.149290 0.523376 
-0.534206 4.123290 1.105510 
-0.211188 4.077630 1.351100 
0.182182 4.135570 1.177920 
0.616844 4.097760 1.165030 
1.207910 4.114180 0.348349 
1.381170 4.079000 -0.050045 
1.306410 4.067130 -0.523433 
1.017850 4.090660 -0.862539 
0.702487 4.089100 -1.144380 
-0.012071 4.137170 -1.177630 
-0.333040 4.186760 -0.929413 
-0.756112 4.195400 -0.595788 
-0.842045 4.217870 -0.169261 
-0.702254 4.238820 0.254383 
-0.636470 4.196050 0.721964 
-0.152806 4.209300 0.889882 
0.413500 4.210290 0.794154 
0.811680 4.175240 0.673845 
1.044510 4.166810 -0.249131 
0.758412 4.196970 -0.597753 
0.362550 4.169140 -0.996950 
-0.004699 4.244670 -0.704141 
-0.405519 4.257230 -0.491375 
-0.406753 4.287480 -0.041345 
-0.322228 4.271470 0.435701 
-0.051767 4.291550 -0.284052 
0.092959 4.260890 0.562340 
0.692965 4.244840 -0.133259 
0.438271 4.274630 0.307903 
0.324228 4.289800 -0.151415 
0.379909 4.245900 -0.586033 
-0.000637 4.302160 0.146618 
